ply
format ascii 1.0
comment VTK generated PLY File
obj_info vtkPolyData points and polygons: vtk4.0
element vertex 245
property float x
property float y
property float z
element face 0
property list uchar int vertex_indices
end_header
-1.27767 -1.38554 -4.28329 
-1.18318 -1.38944 -4.41959 
-1.3035 -1.29345 -4.25669 
-1.20159 -1.41499 -4.38482 
-1.30909 -1.2751 -4.26209 
2.87932 1.70127 -9.9543 
-1.30718 -1.3956 -4.25011 
4.17138 2.33917 -11.0822 
-1.31209 -1.26338 -4.25949 
0.882453 -0.336624 -6.48136 
0.707352 -0.025166 -6.58079 
3.32977 -0.702943 -10.0938 
0.671334 1.74262 -6.66234 
2.30868 -0.784558 -8.98189 
0.0601319 -0.17181 -5.97036 
-1.10477 -1.17818 -4.69102 
2.89014 -0.120371 -9.77069 
3.35304 1.45948 -10.3582 
-1.31089 1.32535 -4.66453 
-1.1696 -0.12508 -4.71969 
0.675957 -0.36201 -6.38988 
-1.30756 -1.3692 -4.24564 
0.45865 2.2961 -6.92487 
1.08464 0.966556 -6.93599 
-1.18188 -1.29186 -4.41994 
-1.2994 -1.36521 -4.26199 
3.34689 -0.341574 -10.1962 
-0.597713 -1.43509 -4.52589 
2.28648 -1.10774 -6.2618 
0.598826 2.1606 -7.04597 
1.05641 0.658765 -7.01104 
3.30947 -1.15546 -10.0245 
0.289503 2.03638 -6.78589 
0.93253 -0.733755 -6.4934 
3.27416 -1.1201 -10.0493 
-1.16846 0.292811 -4.77293 
-1.28942 -1.27101 -4.27648 
-1.19902 -1.31744 -4.39445 
-0.970426 1.05891 -5.08685 
3.39829 3.71664 -10.6303 
2.30895 -1.07253 -6.2701 
-0.624438 0.429777 -5.48157 
3.27229 -0.936768 -10.0681 
-1.32308 -1.37529 -4.2326 
-0.631075 1.03345 -5.56502 
-0.166656 -0.351551 -5.50373 
-1.16846 -0.125376 -4.719 
-1.03423 1.0556 -5.00175 
0.505614 2.47367 -6.93221 
0.826188 0.24873 -6.72299 
0.637612 -0.73814 -6.12753 
0.618978 2.44622 -7.09585 
-0.97256 1.7052 -5.16531 
-1.28679 -1.28375 -4.27905 
0.0801753 -0.0804012 -5.99414 
-2.16081 -1.45797 -4.5224 
0.705417 2.36626 -7.19077 
-1.29038 -1.26991 -4.27788 
0.575177 2.15939 -7.04611 
2.29342 -1.11336 -6.24136 
-0.212054 -0.398085 -5.41325 
-1.19988 -1.29667 -4.3972 
0.183488 -0.413626 -6.11548 
0.673537 -0.38347 -6.37839 
0.45448 0.958737 -6.30228 
-0.199716 -0.346718 -5.44387 
-0.697824 0.138776 -5.36741 
0.786892 0.314193 -6.71468 
-0.970737 1.05908 -5.08905 
0.0587111 -0.171543 -5.97179 
-1.19898 -1.31493 -4.39449 
-0.14522 0.158155 -5.38112 
4.6943 3.51539 -11.2336 
0.45517 2.29254 -6.91713 
0.78601 -0.349108 -6.44475 
-0.733387 -0.66357 -5.22774 
-1.32089 -1.38796 -4.23361 
0.67955 -0.755269 -6.19964 
4.18319 2.39446 -11.0376 
3.30872 -0.710084 -10.1046 
4.97666 3.55003 -11.133 
0.697734 0.0899414 -6.65829 
0.898639 -0.740309 -6.44549 
3.26835 0.390198 -10.2241 
0.652902 2.49507 -7.12921 
0.703071 0.125476 -6.67934 
0.871814 -0.282734 -6.49208 
2.35548 -0.94049 -9.00773 
-0.0123033 1.43993 -6.30186 
2.32288 -0.99175 -6.27727 
0.822497 -0.260428 -6.49124 
0.680566 0.0062807 -6.58854 
1.62079 -0.879088 -7.31759 
-1.12925 0.101371 -4.78688 
-1.08316 0.648646 -4.91168 
-0.131182 -0.625643 -5.18789 
1.09628 0.987915 -6.94247 
-0.222138 1.47508 -6.08399 
-0.185864 1.41055 -6.11981 
1.04364 2.27784 -7.72908 
3.29029 -0.96521 -10.0825 
0.875129 -0.189275 -6.62951 
0.857829 -0.297135 -6.47936 
0.182461 -0.415746 -6.12027 
2.45823 2.0834 -9.47215 
0.543861 2.28752 -6.98137 
0.647997 2.16825 -7.1246 
-1.37302 -1.25299 -4.20601 
0.170355 -0.986404 -5.4574 
0.616197 2.15364 -7.07912 
5.18384 3.58139 -11.065 
0.574161 2.5191 -7.02785 
1.13396 1.83181 -7.11241 
2.36614 1.18496 -9.23683 
0.85293 -0.259559 -6.55667 
-1.32284 -1.38967 -4.23365 
-1.91861 -1.1576 -4.64429 
0.900666 -0.334682 -6.49134 
0.501437 2.43946 -6.9332 
3.26663 -1.19062 -10.0558 
0.723791 0.282884 -6.7052 
0.680011 2.23895 -7.15146 
4.91404 2.67668 -11.0677 
-1.37172 -1.25248 -4.20502 
0.87716 -0.186897 -6.62128 
0.385437 1.61644 -6.29535 
2.32163 -0.903464 -8.96024 
0.523522 2.5015 -6.97306 
0.616946 -0.378857 -6.40235 
0.89498 0.253937 -6.70802 
-1.19939 -1.29577 -4.39686 
0.718941 -0.182502 -6.65898 
0.44859 1.65382 -6.31905 
3.31119 -0.71088 -10.1141 
0.791064 -0.02863 -6.60214 
0.526391 2.45747 -6.95364 
-1.54489 -1.41124 -4.25342 
0.636769 -0.37205 -6.40211 
1.92862 0.19031 -8.62126 
0.0595931 -0.12341 -5.97 
0.543178 2.20379 -6.99274 
-1.15988 1.49082 -4.89023 
0.66568 0.265118 -6.63274 
0.83798 -0.363711 -6.45391 
0.0585125 -0.676879 -5.44264 
4.70064 2.91363 -11.1966 
0.605788 2.19462 -7.05558 
-0.744539 -0.638513 -5.22358 
-1.21572 -1.35781 -4.36792 
-1.21168 -1.41333 -4.37347 
0.0363331 -0.654263 -5.37124 
0.679105 2.22181 -7.1847 
0.131728 0.238118 -6.09625 
0.601382 2.4903 -7.07928 
0.615118 2.2248 -7.07782 
0.156809 0.262915 -6.04102 
0.593957 2.2912 -7.04772 
0.844439 -0.245431 -6.50076 
0.909545 -0.336416 -6.4994 
0.898328 -0.218199 -6.61616 
0.172878 0.996298 -5.88698 
-0.580695 0.237132 -5.54972 
2.14721 1.43871 -9.02112 
-1.74053 -0.876968 -4.64831 
0.485785 2.4216 -6.93604 
1.0135 2.31199 -7.72808 
0.51376 2.25075 -6.91661 
0.513629 2.2687 -6.91121 
0.240477 2.28577 -6.74091 
0.908639 -0.252889 -6.53795 
-2.06005 -1.44278 -4.43065 
4.66919 2.62942 -11.155 
0.671803 0.981277 -6.4245 
-0.634517 1.0655 -5.54384 
0.64232 2.28797 -7.1043 
-1.60094 -1.22986 -4.45128 
2.35521 -0.881151 -9.01127 
0.832705 -0.297442 -6.49061 
0.436091 1.63577 -6.35781 
0.679467 2.2134 -7.15976 
1.40596 1.39759 -7.205 
0.840189 -0.21034 -6.5995 
-0.293866 1.84137 -6.02915 
0.519073 2.38321 -6.95255 
1.01533 2.30937 -7.72229 
-0.516329 1.83827 -5.75373 
2.31646 -1.00021 -6.27795 
0.465361 2.3693 -6.88957 
0.681151 2.25278 -7.15586 
-0.974613 -0.687539 -4.91364 
0.908449 -0.279423 -6.49486 
0.298181 2.37944 -6.81545 
-1.43179 -0.580623 -4.48266 
0.601182 2.28621 -7.03151 
0.606317 0.961655 -6.32303 
0.920522 -0.330072 -6.50173 
0.638029 1.80575 -6.63686 
0.440506 1.48901 -6.09958 
-1.82526 1.37118 -4.94369 
0.747698 1.86118 -6.70146 
0.515626 2.23128 -6.92931 
-1.46056 1.10829 -4.70261 
-0.643401 0.253158 -5.469 
-0.319423 1.85805 -6.01416 
0.794686 -0.029527 -6.57697 
-1.79365 1.46525 -4.82571 
-1.64217 -0.597093 -4.67802 
-1.80435 0.96529 -4.79383 
0.881903 -0.310064 -6.49131 
-1.60299 0.901442 -4.78724 
0.628448 2.33536 -7.1 
0.608952 2.36446 -7.04279 
-1.76115 -0.165938 -4.75819 
-0.718643 0.219009 -5.32631 
1.90834 -0.0329506 -7.90881 
0.60234 -0.324474 -6.45305 
0.792962 0.0619463 -6.67731 
1.49182 1.33097 -8.20245 
0.851847 -0.477967 -6.6197 
0.172252 0.957376 -5.94501 
0.558552 2.52903 -7.01342 
2.35591 -0.866164 -9.02257 
0.602731 2.35069 -7.06947 
0.595159 2.40161 -7.0222 
0.501808 2.26937 -6.92816 
1.89823 -1.57612 -5.35334 
-0.00906316 2.28134 -6.43647 
0.798958 0.783216 -6.76951 
0.893937 0.788912 -6.88448 
-1.64226 -0.597467 -4.67862 
-0.6389 1.04486 -5.54007 
0.617269 2.21918 -7.06701 
0.647213 2.38186 -7.11851 
1.10782 1.85362 -7.09704 
0.469402 2.44882 -6.9453 
0.524872 2.34594 -6.94479 
0.4842 2.33048 -6.90689 
0.643096 2.39796 -7.10282 
1.21718 0.957686 -7.11801 
0.534054 0.968945 -6.23702 
0.941758 -0.280648 -6.4871 
0.48488 2.4258 -6.92882 
0.665366 -0.314925 -6.40307 
0.525702 2.25991 -6.93333 
-1.85756 -1.19614 -4.65787 
